# .PCD v0.7 - Point Cloud Data file format
VERSION 0.7
FIELDS x y z intensity
SIZE 4 4 4 4
TYPE F F F F
COUNT 1 1 1 1
WIDTH 500
HEIGHT 1
VIEWPOINT 0 0 0 1 0 0 0
POINTS 500
DATA ascii
-0.57759243 0.66772932 -0.92956287 15.063832
-0.49636847 0.6613158 -0.9530021 17.784973
-0.5274815 0.59822041 -0.91958499 21.553446
-0.39125168 0.70185715 -0.99001926 17.757395
-0.4196814 0.5988003 -0.95202631 18.42395
-0.4472017 0.56666005 -0.92386222 17.569002
-0.22519208 0.7268784 -1.029186 18.59791
-0.28522921 0.64933348 -0.99144351 18.234871
-0.32522658 0.56306493 -0.94950277 16.434402
-0.39556852 0.50292808 -0.91143966 19.376587
-0.43835416 0.43155468 -0.87591749 22.519978
-0.090587795 0.71490341 -1.0600733 19.247183
-0.14099516 0.66603243 -1.0453126 17.346577
-0.18602765 0.58829767 -1.0156332 18.311626
-0.26221415 0.53285283 -0.96583754 16.201025
-0.27852917 0.43779784 -0.91855532 19.255497
-0.32878256 0.35408345 -0.87237507 19.601654
-0.046197671 0.60125196 -1.0504301 18.483767
-0.13670656 0.52090877 -1.0101067 19.663532
-0.15573642 0.45780343 -0.98081589 18.257977
-0.17058553 0.36712992 -0.92771041 20.040501
-0.28152326 0.3022975 -0.8615101 15.773888
-0.32680643 0.23852913 -0.84186208 21.244184
-0.35076243 0.16344135 -0.8145625 20.042276
0.067985326 0.60623378 -1.0606315 18.330883
0.024061484 0.55986381 -1.0410378 17.529032
-0.034745682 0.47354123 -1.0108805 16.439583
-0.07444378 0.382339 -0.9650771 20.06106
-0.13388376 0.32870749 -0.9211064 18.357395
-0.18232995 0.23712879 -0.87987965 18.911289
-0.22862375 0.16587305 -0.844827 16.171095
-0.27029398 0.1027552 -0.8075245 18.654139
0.19341138 0.66761351 -1.0829519 13.349854
0.18116719 0.59514254 -1.071422 15.74405
0.10895988 0.5069927 -1.0327659 15.528503
0.069936723 0.41685519 -1.0053746 13.717832
0.0032798443 0.33516067 -0.9644208 18.755131
-0.032580044 0.26462233 -0.92983383 20.323875
-0.099486768 0.18723643 -0.8819713 16.648699
-0.16830213 0.12742351 -0.84220356 18.745771
-0.20122625 0.055736665 -0.81289142 18.042795
-0.23133984 -0.013664822 -0.76688313 20.030451
0.29735294 0.65211135 -1.0827166 18.49411
0.25075692 0.51692951 -1.0473555 16.830988
0.15062627 0.35071743 -0.97355711 18.25646
0.096934073 0.27895671 -0.96017003 14.180441
0.050992806 0.21500944 -0.92878729 19.644545
-0.012184604 0.13044709 -0.86546016 18.265167
-0.058779065 0.045619063 -0.83872664 14.564688
-0.12333851 -0.0038849607 -0.80264372 15.139357
-0.16918395 -0.078059025 -0.75905848 20.028437
0.42682141 0.64556652 -1.108514 16.51231
0.38170394 0.55686295 -1.0838168 16.040884
0.3375743 0.45606741 -1.0379434 16.549707
0.27713558 0.39049095 -1.0223594 14.661263
0.22293332 0.31779867 -0.99467689 15.705368
0.17497844 0.23654357 -0.95152378 16.661945
0.11432805 0.16678253 -0.91537207 18.715755
0.069465138 0.08540152 -0.87366658 17.456417
0.02153182 0.018005356 -0.83572072 18.403959
-0.033894513 -0.069667026 -0.80480045 16.389172
-0.069070697 -0.14086592 -0.76111585 17.923653
-0.077595778 -0.2086609 -0.72472942 18.715036
0.52924734 0.59412581 -1.1028786 17.041388
0.48102063 0.51003838 -1.0729003 15.041375
0.39843354 0.42652076 -1.0425973 14.722256
0.35664192 0.33656442 -0.99429977 15.373704
0.30982459 0.26744157 -0.96155989 17.808748
0.26777226 0.20709002 -0.9503864 12.066228
0.18824334 0.099822544 -0.91744077 17.994526
0.15970217 0.042411372 -0.89391971 16.724283
0.11189391 -0.048091877 -0.85403484 16.325125
0.046239629 -0.085349604 -0.81547731 17.025393
0.027529789 -0.19573422 -0.76364893 18.266678
-0.011025616 -0.26711851 -0.71630991 19.025024
0.59236914 0.54383588 -1.0932909 17.049673
0.53131253 0.45200449 -1.0496475 18.510876
0.47940525 0.37094212 -1.0445729 21.055962
0.46744737 0.2913107 -1.0140922 13.635709
0.40440267 0.21681412 -0.96406847 17.121531
0.35424781 0.13649172 -0.9511748 13.17062
0.28575155 0.058318485 -0.92496216 15.154164
0.24378912 -0.027021017 -0.89021623 18.2045
0.18135703 -0.084690228 -0.86436439 19.966564
0.1489999 -0.16949962 -0.80854851 15.918877
0.1011794 -0.24710107 -0.77847493 19.608255
0.049626887 -0.33220193 -0.71659452 18.322041
0.015099883 -0.42112559 -0.67218202 20.435562
0.70150363 0.48577392 -1.0825453 17.532074
0.64591449 0.39901963 -1.0634123 15.537751
0.57654709 0.32486418 -1.0245754 15.242297
0.52770615 0.25464845 -1.0070504 13.104725
0.49717617 0.15157792 -0.96729684 13.635162
0.42435813 0.060794629 -0.92252922 14.538087
0.38862455 -0.020162659 -0.90690702 11.027981
0.34013015 -0.084270842 -0.88459939 15.935671
0.26017547 -0.16840556 -0.83915275 18.415194
0.22162847 -0.24276394 -0.8085956 13.974943
0.17165878 -0.30177152 -0.76086426 12.900776
0.12740414 -0.38610685 -0.72642303 16.155901
0.066583157 -0.45119157 -0.6833635 14.741584
0.044308729 -0.54574591 -0.6387946 20.304373
0.040410977 -0.61010152 -0.61401296 15.97654
0.72030944 0.35396981 -1.060462 18.092279
0.67196888 0.28145975 -1.0218247 13.860538
0.63085133 0.18788357 -0.99285942 14.627028
0.5365082 0.12722448 -0.97012919 14.063979
0.51771027 0.022912642 -0.92086083 16.211008
0.46402708 -0.04601147 -0.90817463 14.979008
0.42215219 -0.12200565 -0.87177378 12.529533
0.33458909 -0.20822236 -0.82503057 16.548985
0.32505229 -0.30030763 -0.80170512 19.188326
0.25475061 -0.370004 -0.7666344 16.385174
0.20844957 -0.45414212 -0.71778083 11.024328
0.17091648 -0.52135921 -0.68892747 21.314528
0.096296407 -0.59157878 -0.63637316 18.586922
0.060995892 -0.6262092 -0.61030889 19.058504
0.73247844 0.2147222 -1.017325 15.043962
0.7222001 0.15576237 -1.0006205 15.114614
0.6716069 0.066994697 -0.95634353 16.961964
0.61317378 -0.0048217848 -0.93196219 15.61957
0.57901204 -0.086984247 -0.88511074 15.542473
0.51208395 -0.17184702 -0.86637801 17.525202
0.45278788 -0.24058306 -0.84085822 12.245503
0.40520722 -0.35048383 -0.8117193 11.300192
0.3444007 -0.40530029 -0.77975982 16.853966
0.33215746 -0.48363307 -0.73981369 17.743374
0.25102079 -0.58501273 -0.67152399 10.013812
0.19585124 -0.63453215 -0.64621037 17.766973
0.16745067 -0.71838462 -0.60384911 17.770777
0.79290617 0.090713806 -0.97284317 14.08599
0.7326265 0.0052783401 -0.95381236 16.333031
0.65365839 -0.067667149 -0.91635466 15.624388
0.61222661 -0.16076919 -0.89127582 14.407962
0.5766896 -0.23280403 -0.8508985 13.644605
0.52875185 -0.31407449 -0.824907 17.04306
0.45851186 -0.39320803 -0.80408466 16.134281
0.42648941 -0.47367361 -0.77100545 16.150984
0.38387185 -0.56094104 -0.71921706 15.829125
0.33108255 -0.6150319 -0.684892 13.568569
0.25719574 -0.6945616 -0.64089704 18.767939
0.23337182 -0.76344115 -0.60112196 14.946416
0.80415845 -0.045178253 -0.94970256 17.03545
0.75554025 -0.11553826 -0.91364819 16.576689
0.70697469 -0.18358581 -0.87848473 16.406094
0.67620426 -0.28672019 -0.85244715 14.46881
0.62569231 -0.37696865 -0.82764387 14.042339
0.55180645 -0.42900154 -0.80483812 15.115726
0.50743163 -0.53786135 -0.76024503 16.846315
0.4591004 -0.61102319 -0.71643281 18.686922
0.42247671 -0.6631065 -0.68452555 15.815067
0.36599708 -0.77321428 -0.62642938 17.290276
0.33100331 -0.82931006 -0.60326219 14.732822
0.27510384 -0.90027511 -0.55733812 18.658384
0.24371596 -0.9932791 -0.52354246 19.045944
0.7892921 -0.24248938 -0.88100004 14.940579
0.77339715 -0.34208646 -0.85157752 13.907366
0.70628816 -0.43153942 -0.81909215 12.663531
0.65539163 -0.48539096 -0.79262269 18.293264
0.59521699 -0.57294643 -0.75955445 17.128441
0.54099381 -0.66664457 -0.71443582 18.696432
0.50350583 -0.72576177 -0.6821872 16.832323
0.44980434 -0.79367501 -0.63871408 13.680751
0.39736754 -0.90004426 -0.59415299 15.03436
0.35921356 -0.98409176 -0.5502423 15.510468
0.26942399 -1.0526685 -0.50650537 13.867808
0.27313843 -1.1019887 -0.49729261 25.048925
0.82261819 -0.37596217 -0.84091145 18.71409
0.80646068 -0.49509671 -0.80848813 11.411224
0.73163921 -0.55884337 -0.78627783 9.1675472
0.69340873 -0.64584041 -0.74886829 12.671608
0.62258381 -0.71397358 -0.72212517 15.884352
0.58810574 -0.77248633 -0.68264204 19.055702
0.52860546 -0.85235596 -0.63648337 15.154984
0.48212042 -0.95425278 -0.59188551 18.190107
0.45850649 -1.0192262 -0.55521744 15.629374
0.40985739 -1.0805221 -0.51651788 11.309483
0.83444941 -0.60029256 -0.78347385 15.353394
0.78414237 -0.706734 -0.74575514 14.569099
0.72388166 -0.77129942 -0.72285527 15.816409
0.66691625 -0.83358771 -0.67904657 17.979494
0.6071986 -0.92879349 -0.62653017 15.218269
0.57402241 -1.0003196 -0.59115303 15.212281
0.49774402 -1.0705382 -0.54533839 14.146708
0.46050245 -1.15558 -0.50265223 16.327042
0.8639679 -0.74082112 -0.73667634 10.986425
0.81911832 -0.80117691 -0.71248716 13.799597
0.76350617 -0.87356234 -0.67725265 16.774714
0.71020138 -0.95028824 -0.62103713 15.916821
0.6402753 -1.0536426 -0.58331406 14.970106
0.60780668 -1.1124349 -0.56169403 14.806353
0.89203358 -0.88685274 -0.67826474 12.026273
0.84309685 -0.94864696 -0.63528186 13.05079
0.76874733 -1.0141811 -0.60954195 9.7801018
0.73170489 -1.1081655 -0.57769328 11.619756
-0.92388433 0.76914746 -0.81801546 23.755756
-0.83078504 0.71178216 -0.82997364 20.351086
-0.84722698 0.62414849 -0.7830379 27.976736
-0.71214885 0.70693839 -0.88133043 21.532219
-0.77601188 0.6354562 -0.81476957 20.256577
-0.79799104 0.57818806 -0.78030598 20.456144
-0.59056526 0.70169234 -0.92950594 19.386625
-0.62845546 0.64786708 -0.88947952 18.866388
-0.68601483 0.57229108 -0.82818115 18.296394
-0.73758543 0.51338941 -0.78283691 22.036978
-0.73981851 0.43497372 -0.74573213 21.29108
-0.56491572 0.59450042 -0.88441563 21.052437
-0.57810938 0.52480954 -0.8417474 22.151489
-0.6360718 0.44877514 -0.79862416 18.303787
-0.6854918 0.38225132 -0.74545056 21.137695
-0.36203641 0.68176097 -0.94865859 21.072336
-0.42543352 0.65662605 -0.93218696 21.591105
-0.48766938 0.53942883 -0.88991237 15.454283
-0.49859372 0.46113566 -0.8440938 20.488419
-0.5531553 0.3960689 -0.80375189 20.631294
-0.60144043 0.30401945 -0.72882795 20.616198
-0.39228472 0.49441624 -0.88893956 19.286926
-0.43387136 0.40758029 -0.83679318 19.057642
-0.47085047 0.34254277 -0.79802859 20.943468
-0.52279478 0.25833145 -0.74265677 20.034975
-0.57071972 0.189934 -0.69737422 21.86648
-0.58788067 0.14857607 -0.67436296 26.975122
-0.30994052 0.42037222 -0.86038315 17.586632
-0.35291815 0.35462898 -0.84782833 18.307819
-0.39514214 0.29138014 -0.80291855 19.925512
-0.44094726 0.20627595 -0.76473767 20.052282
-0.482638 0.13727945 -0.70668232 19.022757
-0.52106839 0.053747598 -0.65982181 19.022274
-0.55598778 -0.00012733985 -0.62697667 23.070772
-0.20742311 0.41910151 -0.89217186 17.06525
-0.30105817 0.23205645 -0.80315483 17.412676
-0.37828955 0.15139592 -0.76684093 19.825186
-0.39690816 0.079605825 -0.73758364 19.537331
-0.45307457 0.0085507482 -0.66996616 19.616392
-0.49061128 -0.059890669 -0.62703794 23.039963
-0.2943925 0.080879316 -0.7609424 18.518925
-0.31996989 0.012740066 -0.73266572 18.806477
-0.38128364 -0.030187519 -0.68807578 21.193281
-0.42596114 -0.1143281 -0.631037 18.707176
-0.44012192 -0.18945876 -0.58816218 19.535992
-0.13037734 0.10870742 -0.80502713 12.99086
-0.21953276 0.064328857 -0.76925737 20.050329
-0.25606683 -0.036451381 -0.72265601 19.103151
-0.28136578 -0.088124178 -0.69542944 21.785503
-0.32807174 -0.15322967 -0.64789456 17.025818
-0.38680214 -0.25390962 -0.58686441 21.200674
-0.004576087 0.11167175 -0.81982833 22.068523
-0.087311275 -0.016205698 -0.76411188 23.091373
-0.16440633 -0.084685884 -0.70031983 21.383774
-0.20219395 -0.16676408 -0.68631816 19.876707
-0.25868535 -0.21891882 -0.64480227 17.275826
-0.31761953 -0.31839675 -0.57527274 19.666466
-0.33759743 -0.37361404 -0.55228508 23.248936
-0.059832428 -0.038347695 -0.76837528 21.07126
-0.063595623 -0.13250184 -0.74024117 19.798973
-0.12242861 -0.22048327 -0.68848801 19.749052
-0.16959941 -0.27293038 -0.64174968 19.295912
-0.22009908 -0.35040164 -0.59644395 19.525299
-0.25949708 -0.42114654 -0.55190736 21.769003
-0.29318926 -0.48230344 -0.51493752 24.044306
-0.032173343 -0.17511921 -0.71786273 20.106647
-0.057495769 -0.28608036 -0.68359667 22.439394
-0.082215384 -0.33509973 -0.64779723 18.078568
-0.13129053 -0.42163885 -0.59978706 19.027077
-0.19096713 -0.5002386 -0.53853917 16.824961
-0.21939613 -0.54693282 -0.50564498 18.02371
-0.24050553 -0.65039229 -0.46321499 22.05616
0.071221545 -0.2415438 -0.72498757 16.529032
0.043378096 -0.34427059 -0.68753105 18.800526
-0.0042504729 -0.39759147 -0.65440619 21.351257
-0.051209014 -0.45727772 -0.60519648 18.056887
-0.10778181 -0.55573559 -0.55657607 17.700535
-0.15234406 -0.62410778 -0.50989175 18.817469
-0.19204961 -0.69395059 -0.47053552 21.462967
0.15299784 -0.26415598 -0.71585667 18.052689
0.082127497 -0.40933368 -0.67276585 19.978104
0.029803786 -0.53106487 -0.61463541 18.046566
-0.022653971 -0.60656548 -0.57405913 20.226051
-0.075145304 -0.6930331 -0.52014107 18.206427
-0.12077036 -0.75925547 -0.47331804 20.603302
-0.14118649 -0.82938051 -0.42577285 17.547993
0.2281715 -0.50265765 -0.66108334 19.977177
0.1426104 -0.59729028 -0.61223477 16.804499
0.075950257 -0.67798233 -0.57916749 19.200945
0.020720104 -0.73025209 -0.53471553 19.229097
-0.016418301 -0.81701863 -0.48231003 15.503872
-0.073943123 -0.89028502 -0.42860296 20.526791
-0.078071691 -0.95579499 -0.39212593 15.807784
0.30227205 -0.48901767 -0.67276376 20.074682
0.21953833 -0.54137462 -0.64073199 20.074535
0.14081095 -0.73032624 -0.58147556 16.90729
0.1021521 -0.78930515 -0.5364309 19.634367
0.047412645 -0.85837215 -0.48418158 20.086416
0.004779866 -0.96469349 -0.40875652 18.729229
-0.023249295 -1.0054915 -0.39232981 17.545185
0.17998992 -0.77905923 -0.56853205 12.994135
0.18843053 -0.86361229 -0.53246224 18.19768
0.12793107 -0.93020445 -0.474455 15.843573
0.084381051 -0.99712485 -0.44114304 19.042393
0.052141435 -1.0616302 -0.39270189 17.07436
0.020729439 -1.1432629 -0.34782761 20.022923
0.24160771 -0.88195449 -0.54112816 17.306038
0.20795242 -0.99913853 -0.5020324 17.61367
0.16702494 -1.0562278 -0.45725462 18.156376
0.11480471 -1.1321564 -0.38986871 18.325766
0.37801582 -0.87990159 -0.56704241 15.513343
0.28643909 -1.0466776 -0.50357902 19.718527
0.23149481 -1.0900698 -0.46500349 15.529016
0.44316664 -0.98110825 -0.52561009 20.067253
0.39086673 -1.111331 -0.49853203 13.021119
0.33499303 -1.1499317 -0.46976462 14.87449
0.55638278 -0.99662852 -0.5430609 20.073118
0.50425452 -1.0240563 -0.52536863 20.073021
0.42165446 -1.1517872 -0.47002581 16.031281
0.64902258 -1.0164621 -0.54253453 20.073265
0.62116522 -1.1741316 -0.49626282 8.9953089
0.78494555 -0.96978402 -0.57729745 20.073509
-0.93318504 0.74369335 -0.7873742 22.151842
-0.96061552 0.69535619 -0.746333 19.769606
-1.0263427 0.61251551 -0.67136365 23.500401
-1.0711615 0.53184742 -0.63217705 19.764858
-0.85907805 0.67845064 -0.77706969 19.815268
-0.88393998 0.62898135 -0.73766768 20.499634
-0.93272883 0.57091224 -0.69932872 21.307299
-0.99257499 0.48145562 -0.64388812 19.792961
-1.0529211 0.40226325 -0.6021691 19.798615
-0.80558169 0.56866449 -0.74855691 21.585863
-0.8685329 0.5152514 -0.69782358 20.418598
-0.91666198 0.43525574 -0.65501231 21.829338
-0.94806969 0.34700361 -0.61436081 21.005501
-1.002643 0.2625435 -0.55140692 19.044691
-1.0572523 0.22316138 -0.53065401 21.355898
-0.74667358 0.49329832 -0.74373925 21.987926
-0.76260591 0.43157545 -0.71526879 19.431612
-0.82553357 0.37817335 -0.66523975 19.922544
-0.87547207 0.28814182 -0.61723375 21.939743
-0.92333049 0.23215018 -0.57480931 19.205547
-0.99219882 0.18430345 -0.53866774 22.564297
-0.74957919 0.38168839 -0.70951211 20.022654
-0.75553262 0.313539 -0.67419958 17.937674
-0.78796566 0.22864604 -0.6226784 21.422688
-0.84738636 0.18058912 -0.57655889 19.767094
-0.8879329 0.092970088 -0.52015173 21.501352
-0.68309426 0.24031533 -0.66853094 17.035423
-0.70188648 0.181924 -0.62880492 21.907324
-0.75303447 0.12396275 -0.58057195 21.26479
-0.79154897 0.026462412 -0.51778102 20.50312
-0.83466631 -0.039063312 -0.47616565 21.124767
-0.88679087 -0.14226072 -0.44286719 20.897108
-0.62912798 0.20349216 -0.64367002 20.995699
-0.64195782 0.11358975 -0.62758058 19.691887
-0.65549189 0.049461827 -0.57424861 21.427992
-0.72593963 -0.027087381 -0.51831383 18.691803
-0.7606979 -0.10085001 -0.47818255 20.58827
-0.81619591 -0.16984963 -0.44245079 20.220627
-0.81804627 -0.23638101 -0.43142247 23.06344
-0.54001886 0.15699959 -0.66866773 13.989247
-0.53626502 0.048156589 -0.61482739 18.683823
-0.59512156 0.0031066814 -0.57384491 21.215025
-0.64053375 -0.070018597 -0.5244441 20.707411
-0.67309982 -0.1484132 -0.48359939 18.809765
-0.73171329 -0.20918813 -0.44252908 18.725698
-0.80591345 -0.27470464 -0.41846246 24.106451
-0.51117802 -0.099160038 -0.57475692 18.731134
-0.55616927 -0.13881338 -0.53389865 20.887581
-0.59207845 -0.20125464 -0.4907845 20.228601
-0.64972335 -0.28670973 -0.43407041 18.767757
-0.67401451 -0.35125253 -0.41061935 22.780184
-0.42467877 -0.15553297 -0.56535792 20.995504
-0.49444228 -0.20730548 -0.54406953 16.02224
-0.50608963 -0.26124004 -0.49428242 20.533701
-0.57401222 -0.32598117 -0.44614658 19.279293
-0.61438352 -0.4144679 -0.40512931 17.789045
-0.6402961 -0.51030022 -0.362288 20.957922
-0.72322351 -0.5942719 -0.33064398 20.720707
-0.78568393 -0.61933941 -0.30797592 26.073315
-0.31615821 -0.22773167 -0.5754354 12.990128
-0.33359325 -0.23629831 -0.56701416 20.119942
-0.42992693 -0.32349896 -0.51333064 17.542168
-0.48267689 -0.38781539 -0.46728227 20.821642
-0.53126973 -0.46751967 -0.41682029 19.414858
-0.60814399 -0.52818334 -0.37126446 20.958061
-0.65179688 -0.63233709 -0.32029799 16.204899
-0.25044522 -0.31282142 -0.56151605 14.063685
-0.37055537 -0.36968455 -0.51798725 19.362734
-0.39911708 -0.45566735 -0.46037728 20.662464
-0.45184413 -0.51778781 -0.41242579 16.825745
-0.50059688 -0.58502477 -0.37160814 20.031572
-0.5410707 -0.66402292 -0.32701403 16.520185
-0.60933876 -0.7483542 -0.28852218 17.089882
-0.2873033 -0.426774 -0.50174153 18.840178
-0.31991091 -0.52378565 -0.47725755 22.03042
-0.36160371 -0.56983364 -0.41648769 22.824854
-0.40080801 -0.6490249 -0.37852642 23.165501
-0.45218304 -0.74327564 -0.3266927 18.314039
-0.49728397 -0.80801004 -0.29660162 19.049789
-0.56917536 -0.83731931 -0.26878124 23.110264
-0.23366222 -0.49324378 -0.48687994 14.063539
-0.2363283 -0.58502775 -0.47070548 18.882698
-0.2799167 -0.63345361 -0.43479228 19.091408
-0.32121021 -0.68981415 -0.37672234 19.953867
-0.38168857 -0.78868991 -0.33174467 16.624868
-0.43940911 -0.86386824 -0.28691584 18.815218
-0.48310006 -0.93470305 -0.25341976 21.685963
-0.19717184 -0.63896239 -0.46041557 20.107918
-0.21349096 -0.68772775 -0.42564136 16.403692
-0.24433802 -0.7800647 -0.39035532 19.082197
-0.30632848 -0.84113985 -0.33952659 19.236258
-0.34669289 -0.91238755 -0.30094984 19.27836
-0.39115897 -1.00279 -0.24796662 19.364126
-0.44890851 -1.0627065 -0.21486555 23.057478
-0.15262468 -0.7586537 -0.43483704 19.039118
-0.1864507 -0.81271279 -0.39216498 20.0921
-0.22107494 -0.89502788 -0.35530022 19.751472
-0.2538844 -0.97598505 -0.30880317 22.545351
-0.31019875 -1.053794 -0.24559414 17.600901
-0.10356419 -0.88496149 -0.38727251 16.460787
-0.13543074 -0.94710839 -0.36315152 20.658972
-0.17883782 -1.0311815 -0.30203524 17.909096
-0.22236551 -1.1038719 -0.25094816 16.558407
-0.047564387 -1.0334398 -0.34375122 22.647213
-0.10412895 -1.0884693 -0.30677998 20.766476
0.014680818 -1.0928018 -0.35012376 13.75651
-0.95887113 0.70163119 -0.67663664 18.992523
-0.90331191 0.6834498 -0.68114519 18.992668
-0.97407335 0.54861462 -0.6337986 20.1087
-1.0115654 0.5146926 -0.61347127 22.531868
-1.0331353 0.40730727 -0.54402006 20.351122
-1.0534059 0.19405018 -0.50408667 20.93343
-0.96557033 0.12676045 -0.49728152 19.906794
-1.0191013 0.068514831 -0.45651951 20.584755
-0.87731904 0.074817933 -0.48809737 18.009302
-0.92628723 0.011725783 -0.46324745 20.49844
-0.9736641 -0.053927038 -0.41808566 17.281452
-1.0241623 -0.125744 -0.37324506 20.028158
-0.79751217 0.055284947 -0.49053329 21.111534
-0.8753655 -0.026912443 -0.45721683 21.766199
-0.88681567 -0.10907021 -0.41827261 19.428541
-0.94248009 -0.18496466 -0.39713332 20.874809
-1.001088 -0.26300469 -0.35015464 16.828524
-0.71458739 -0.060888693 -0.46592864 21.111437
-0.79812318 -0.072244458 -0.45178014 22.057772
-0.82744175 -0.17916662 -0.42353994 19.666904
-0.87703741 -0.24561813 -0.38991955 21.169415
-0.9314785 -0.30939198 -0.35478485 20.787647
-0.96777987 -0.40483561 -0.31461224 20.828781
-1.0192922 -0.48106116 -0.25833842 19.910696
-0.74194151 -0.24133892 -0.40270478 14.087863
-0.78828108 -0.31743562 -0.37226847 18.680857
-0.84516257 -0.38414234 -0.34063041 16.580601
-0.87844032 -0.44737327 -0.30585247 18.376547
-0.93191475 -0.54017186 -0.26494777 16.348959
-1.0035042 -0.62255281 -0.2336804 15.754403
-1.0282468 -0.68367916 -0.20621938 17.708178
-0.62011594 -0.20376694 -0.44055516 19.054644
-0.65755755 -0.28809932 -0.40349507 20.020382
-0.70645767 -0.355735 -0.37662935 19.313099
-0.75447065 -0.43635467 -0.34895724 18.919132
-0.79780829 -0.51321441 -0.31454423 15.63309
-0.82540148 -0.57560551 -0.28457874 18.044044
-0.90028393 -0.65934402 -0.24050646 16.906742
-0.94313049 -0.72730047 -0.2122549 20.821285
-0.99556547 -0.82533038 -0.17748371 19.029339
-0.555996 -0.23915315 -0.43342441 11.103373
-0.59019762 -0.32276297 -0.40541601 20.412481
-0.63410169 -0.38995442 -0.37469032 21.558712
-0.67219478 -0.49541998 -0.32973745 19.619263
-0.72235328 -0.5590747 -0.30239004 19.485474
-0.77201045 -0.65092945 -0.27774167 20.362181
-0.82091731 -0.73495007 -0.23166326 17.757853
-0.87612009 -0.80824602 -0.19059812 17.907301
-0.91717833 -0.86055279 -0.16902715 15.517962
-0.53797853 -0.48343751 -0.36706695 21.111143
-0.67517316 -0.62898827 -0.31006843 15.112806
-0.66649288 -0.70775372 -0.26689601 18.326565
-0.73057574 -0.78107584 -0.22909084 18.024946
-0.80330533 -0.85496587 -0.17873652 17.03697
-0.80799282 -0.93169075 -0.15764976 20.350187
-0.88181931 -0.98821932 -0.1199941 19.456247
-0.46662706 -0.59340495 -0.34085643 17.050196
-0.58876413 -0.65840572 -0.28180617 12.988758
-0.59022129 -0.76388592 -0.26819038 18.135872
-0.63891155 -0.82701588 -0.23679382 19.621435
-0.67833573 -0.90061939 -0.19470271 17.90761
-0.75378644 -0.9713279 -0.15049689 18.292875
-0.47725922 -0.66685677 -0.31380746 23.081404
-0.52694279 -0.81540054 -0.25952709 22.054155
-0.55886012 -0.8916021 -0.23114172 18.241594
-0.59303874 -0.9494254 -0.2058325 22.11911
-0.66435999 -1.0392337 -0.14440233 18.554138
-0.3786518 -0.74341476 -0.30745456 20.02747
-0.41549549 -0.87187105 -0.2478216 17.414728
-0.48374134 -0.96266776 -0.21461223 16.292187
-0.53378594 -1.0073271 -0.18690199 19.444038
-0.57495046 -1.0893949 -0.14310731 16.897381
-0.40673229 -0.93270969 -0.21046779 10.107038
-0.44089076 -1.0637882 -0.19413657 17.644995
-0.23357275 -1.0156975 -0.23915595 10.107954
-0.25496298 -1.0329907 -0.22265017 10.107991
-0.24868165 -1.0840676 -0.22141595 10.990518
