# .PCD v0.7 - Point Cloud Data file format
VERSION 0.7
FIELDS x y z intensity
SIZE 4 4 4 4
TYPE F F F F
COUNT 1 1 1 1
WIDTH 615
HEIGHT 1
VIEWPOINT 0 0 0 1 0 0 0
POINTS 615
DATA ascii
-0.098610006 0.33346912 -2.0384378 16.035418
0.086408064 0.45772588 -1.8836128 0.51898825
0.063945368 0.43855122 -1.8864067 3.4852152
-0.012495011 0.42866987 -1.8720626 10.587659
-0.016699838 0.35619721 -1.9561516 2.6744215
-0.1137198 0.33228761 -1.895373 17.031116
-0.15677904 0.3653298 -1.8359249 8.0269794
-0.065723203 0.2917321 -2.0103567 13.486755
-0.12951609 0.30495998 -1.9226688 11.988543
-0.21908197 0.26897222 -1.8875266 1.9817204
-0.2335961 0.33148539 -1.8374555 14.072043
-0.1621287 0.21756648 -2.0143595 20.995796
-0.24982235 0.20975393 -1.9279768 17.364777
-0.31396949 0.20177878 -1.8854653 7.3484688
0.2801474 0.79824317 -1.5554065 24.998339
0.26045445 0.75494093 -1.5872318 26.993647
0.23184873 0.75264984 -1.5748841 12.736193
0.2306533 0.70650357 -1.6600977 6.0373092
0.20250402 0.70273542 -1.6058358 8.2380743
0.11485753 0.70027554 -1.5727065 17.980938
0.17913947 0.60646367 -1.7092987 8.9889421
0.05320812 0.60647619 -1.5931305 12.992253
-0.039178163 0.59488511 -1.5675132 17.980793
0.14396361 0.54780555 -1.7778275 3.7825022
0.080131255 0.55546618 -1.7100822 12.780474
0.018165998 0.5314256 -1.647954 27.993401
-0.087888092 0.52320361 -1.5991999 24.998045
0.070586406 0.46620664 -1.8341273 7.103128
0.037698448 0.4805766 -1.783921 23.995066
-0.051230252 0.46247736 -1.7042764 3.6512871
-0.10373038 0.4660244 -1.6692797 17.58712
-0.19711317 0.46277857 -1.5889817 21.489296
-0.028134489 0.40974733 -1.8287588 17.995993
-0.11450578 0.40195063 -1.7440023 11.98748
-0.16215329 0.41295215 -1.6632962 13.028699
-0.23043013 0.38236299 -1.6257921 19.989101
-0.16240476 0.33605212 -1.8218694 15.99912
-0.22194502 0.32765132 -1.7508905 19.546188
-0.29779118 0.33061513 -1.6773069 10.01872
-0.33548588 0.34715813 -1.5988296 13.861706
-0.21266234 0.30128089 -1.8243829 -0.011436934
-0.26827428 0.26037207 -1.8129554 18.489101
-0.31644654 0.26139328 -1.7299777 11.194625
-0.37904656 0.26141804 -1.6483563 15.360785
-0.32222456 0.20849162 -1.821362 10.544844
-0.36846533 0.19503208 -1.7666177 7.2642717
-0.47845012 0.15776075 -1.6864657 13.549609
-0.50600857 0.20229629 -1.6665702 16.069942
-0.42933244 0.12332558 -1.8220893 11.490885
-0.4936499 0.11954218 -1.7461027 10.38957
-0.53381109 0.12543558 -1.6878363 20.988955
-0.66505224 0.11430904 -1.6243093 17.523582
0.33810034 0.87009531 -1.4148185 15.513415
0.28569806 0.8071335 -1.4592814 18.814985
0.20115203 0.77557474 -1.4081854 10.021494
0.26969379 0.77593845 -1.52757 26.993824
0.16700718 0.73678297 -1.4556242 15.281271
0.14111528 0.65710235 -1.5695826 17.996675
0.11944698 0.66893411 -1.5058252 9.6313295
0.024583109 0.65787196 -1.4310297 16.82568
-0.023834294 0.65221387 -1.3958073 19.024315
0.060377672 0.59797072 -1.5644991 15.019123
-0.016873853 0.60475755 -1.476418 6.9847183
-0.073199555 0.5818817 -1.4133155 12.655059
-0.14197762 0.59575236 -1.3740422 19.034929
0.012493784 0.54701185 -1.5830185 12.543427
-0.056427386 0.53509003 -1.5354263 11.09188
-0.13142624 0.53703177 -1.4554157 7.7341766
-0.2125929 0.51033777 -1.4200798 16.382282
-0.27447349 0.49815792 -1.380487 19.519867
-0.15530081 0.47942629 -1.5210661 8.1036167
-0.23071149 0.46675694 -1.4341887 1.7385386
-0.28902525 0.44296181 -1.41248 13.992245
-0.37912205 0.41969708 -1.3608229 19.056061
-0.24419194 0.40836421 -1.5504619 5.6930108
-0.29840183 0.40240848 -1.4987707 14.115292
-0.37052396 0.40858883 -1.4276253 15.841872
-0.41206339 0.41026723 -1.3504813 21.995211
-0.34074879 0.33589324 -1.5746567 5.5452099
-0.40593126 0.32620001 -1.4945011 15.388651
-0.50594246 0.30369827 -1.3964258 19.25787
-0.53287727 0.3279115 -1.3633968 18.064419
-0.42629251 0.23759931 -1.6154865 18.996284
-0.46361044 0.23970307 -1.5536418 8.1924171
-0.5112474 0.2616069 -1.4563758 13.008487
-0.61536318 0.19553728 -1.4318265 19.055817
-0.52581263 0.18193895 -1.5955466 10.401561
-0.60834414 0.1414818 -1.5256709 12.491887
-0.6418348 0.15784985 -1.4409149 9.8242674
-0.65238726 0.10262443 -1.6004561 13.983015
-0.68803042 0.11812265 -1.4870347 18.011454
-0.77285612 0.077510953 -1.4618856 17.773132
0.45196724 0.96750742 -1.2580223 18.507027
0.36543524 0.96133012 -1.2036015 17.978104
0.41439116 0.90895903 -1.307761 10.536278
0.33718061 0.89131266 -1.2811512 18.078739
0.38026145 0.8706212 -1.3782668 14.36944
0.28908706 0.85061544 -1.3104209 16.682146
0.218114 0.81650323 -1.239804 10.480573
0.28455782 0.81685519 -1.3830614 8.1041059
0.22768506 0.7837311 -1.3835322 7.9864616
0.15659729 0.77233493 -1.2878785 14.892724
0.099840164 0.74432963 -1.2212473 18.484066
0.15439788 0.73368931 -1.3798801 2.4828691
0.1015129 0.69889408 -1.3532102 12.026608
0.03269805 0.69209135 -1.2739887 17.619793
0.074972495 0.66912609 -1.3898598 -0.010654919
-0.021120735 0.65382218 -1.3280187 16.679489
-0.093268462 0.61755186 -1.2622116 18.50721
-0.088750228 0.59666026 -1.3563994 27.994232
-0.13491227 0.58570153 -1.3198956 15.013579
-0.20304616 0.55472368 -1.2521324 19.07773
-0.18799175 0.52719176 -1.3438492 11.490103
-0.25763664 0.50801677 -1.3129002 15.259189
-0.32302883 0.48090455 -1.2243146 15.454575
-0.29683396 0.45595092 -1.3406615 17.993694
-0.35996985 0.43263602 -1.2712544 13.247165
-0.42825344 0.39563778 -1.2291031 19.77544
-0.37260771 0.39410233 -1.3692923 9.9904861
-0.44479468 0.34460673 -1.3462991 12.111956
-0.49632564 0.34217554 -1.2576141 16.768175
-0.49345618 0.2876496 -1.3781657 17.361046
-0.54937768 0.27536026 -1.3078564 11.034238
-0.5827387 0.27850714 -1.2466146 15.253398
-0.54662478 0.22002327 -1.4265176 13.742938
-0.60185415 0.21151403 -1.3636994 17.515163
-0.64815009 0.21484956 -1.2803568 13.205238
-0.74045056 0.16451347 -1.2399213 17.977028
-0.64353508 0.15316786 -1.4092846 15.757266
-0.70709372 0.13584025 -1.3358754 14.531207
-0.8288762 0.099030502 -1.2634357 18.055719
-0.7693392 0.064486392 -1.3945949 13.695781
-0.82736379 0.056781437 -1.3366125 14.295149
-0.88231421 0.043422848 -1.2593969 17.976883
-0.87342793 0.01317085 -1.382755 20.52858
-0.94769037 -0.021577606 -1.3008419 13.700456
0.48752153 1.0007908 -1.072208 12.551539
0.41852117 1.0025535 -1.0365121 17.070772
0.48453161 0.97881639 -1.2063593 12.442111
0.37426355 0.95673335 -1.1577196 16.734133
0.33625692 0.92170382 -1.1023445 17.651314
0.34382695 0.90471327 -1.1785889 12.513143
0.2733897 0.87835199 -1.1290091 11.188946
0.2376623 0.85876828 -1.0689858 19.997923
0.22062322 0.82066387 -1.1864736 1.9868279
0.16307427 0.80008924 -1.1230906 15.787439
0.10709993 0.7989409 -1.0410959 20.998045
0.11611357 0.74621725 -1.172691 14.915121
0.05336722 0.71864897 -1.1002551 3.1539261
0.049383506 0.69788402 -1.2152568 17.022612
-0.0064973901 0.67656314 -1.1486871 12.950294
-0.081021279 0.61712766 -1.1881088 19.103081
-0.13940208 0.59175503 -1.1606287 11.010444
-0.19733217 0.56960726 -1.1196383 16.071995
-0.1995174 0.54886991 -1.1948272 11.359368
-0.23023467 0.52790135 -1.1233269 10.987097
-0.32180724 0.48790514 -1.0966126 5.983871
-0.26601738 0.50375277 -1.2007371 18.101467
-0.3912777 0.43614322 -1.0927085 18.310093
-0.4341096 0.39694747 -1.1418878 16.99345
-0.48723808 0.35663909 -1.098804 13.860744
-0.50218332 0.33451271 -1.2167346 2.9908113
-0.54212952 0.31473112 -1.137274 17.658228
-0.59085429 0.30438152 -1.0949228 16.071602
-0.60136563 0.26267889 -1.1991104 12.992571
-0.64560354 0.23505345 -1.1366478 12.592941
-0.67668533 0.18648039 -1.2278402 4.9894915
-0.7269249 0.14549381 -1.1975482 12.993157
-0.7348125 0.16884606 -1.1091019 11.529888
-0.76969022 0.1024414 -1.2322724 16.493523
-0.82637501 0.10499378 -1.1099929 16.07136
-0.93173081 0.076470412 -1.0741827 16.07126
-0.82199955 0.052177288 -1.2529773 6.9835777
-0.87975144 0.020643981 -1.2308404 14.325889
-0.92787957 -0.014115453 -1.2356766 8.7389174
-1.0352211 -0.077143155 -1.1721507 21.104204
-1.0495552 -0.084445581 -1.140625 4.9911046
0.56871814 1.0628088 -0.9371205 18.99824
0.51458371 1.0412309 -1.0248356 20.329262
0.48588008 1.0152497 -0.92043799 9.9876833
0.47922882 1.0010692 -1.0158846 13.336466
0.40200824 0.96630973 -0.97474694 13.116947
0.32793754 0.92682147 -1.0314554 18.034286
0.27460629 0.89109766 -0.95545441 17.396152
0.24796568 0.86337775 -1.0120891 14.489222
0.14322659 0.82133394 -0.95307434 18.38936
0.11562595 0.78586358 -1.0207797 10.323362
0.05110953 0.7571736 -0.94756359 23.048241
0.039818209 0.73121244 -1.0314606 27.995161
-0.007990676 0.706783 -0.98049974 15.189866
-0.073519811 0.67271459 -0.96174949 11.279301
-0.081325151 0.64016867 -1.0018723 12.987439
-0.11800461 0.62507826 -0.95053715 19.774303
-0.19430423 0.56519252 -1.0099208 18.365494
-0.21921395 0.55516577 -0.94975156 16.093142
-0.2996245 0.50136328 -1.012367 17.659929
-0.34560838 0.47266734 -0.96046591 10.104301
-0.38369611 0.44220409 -1.0562779 18.100782
-0.4293527 0.41945881 -0.96864003 17.317474
-0.46430793 0.40358031 -0.91454589 19.977518
-0.47574458 0.37102962 -1.0656012 11.987195
-0.57027763 0.32309258 -0.95530516 17.784811
-0.59622377 0.28133631 -1.0237488 8.5462608
-0.67143244 0.25468391 -0.96272117 22.533089
-0.7170943 0.19437465 -1.0042974 19.163881
-0.78715074 0.1784779 -0.93758869 21.53348
-0.76991522 0.13689847 -1.0587231 9.5274763
-0.85772234 0.11363184 -0.97137976 19.347948
-0.82878685 0.083264038 -1.1009591 17.732893
-0.88161772 0.054693885 -1.0571312 12.258163
-0.94760942 0.054836791 -0.96860802 22.987144
-0.95397508 -0.0075993161 -1.1092993 8.0476055
-1.011309 -0.014226255 -1.0428973 13.709661
-1.0573256 -0.02455133 -0.98348385 22.987049
-1.0193065 -0.063014552 -1.1235088 20.996872
-1.0509365 -0.067794926 -1.0726293 13.792645
-1.1087198 -0.096831352 -0.9933781 14.241912
0.64753294 1.1350936 -0.78836542 21.2435
0.59892523 1.1103169 -0.77912015 20.02478
0.57456946 1.0805228 -0.88711333 14.515505
0.54321164 1.0652115 -0.82164657 16.236511
0.48236737 1.0434477 -0.76779509 19.065298
0.46166053 1.0123975 -0.82771587 10.493451
0.41630593 0.99057835 -0.78030169 20.639572
0.41859886 0.98132664 -0.88784444 18.101271
0.3407883 0.94739991 -0.85453463 18.594004
0.28742969 0.90727288 -0.77159566 17.409384
0.30017859 0.91194999 -0.89381778 18.991398
0.2270637 0.86417174 -0.84815639 14.330866
0.18312995 0.85014987 -0.78705293 20.986542
0.16044869 0.8410393 -0.86086273 18.980938
0.11322743 0.79024303 -0.83322805 18.178123
0.053793684 0.76630777 -0.76012599 19.981745
0.038274467 0.74244261 -0.87921298 13.642963
0.0077201505 0.72324145 -0.83384997 17.34025
-0.07207258 0.66434318 -0.85658014 16.026693
-0.095861852 0.6619969 -0.77196187 20.653585
-0.10649014 0.6272518 -0.90467644 11.987586
-0.19325197 0.59688699 -0.85810035 23.48794
-0.27418405 0.55587459 -0.75738466 18.979523
-0.26093084 0.53398061 -0.8681547 15.794734
-0.31898174 0.51360917 -0.84173518 17.654236
-0.37844631 0.46493584 -0.87150025 16.009413
-0.44671431 0.43558294 -0.79707778 18.245649
-0.48128787 0.40702108 -0.7624073 18.979324
-0.49565589 0.37769017 -0.87438524 10.586511
-0.52783918 0.3581326 -0.81483901 20.997704
-0.53950238 0.3317489 -0.91733038 19.101662
-0.59717953 0.30433711 -0.85314178 20.495457
-0.65778893 0.27680376 -0.78426641 16.486494
-0.63013572 0.27595466 -0.89692485 23.497509
-0.71079463 0.22402179 -0.84127748 14.656663
-0.76869655 0.19602238 -0.77489263 14.493206
-0.71271062 0.20253208 -0.92588502 13.492156
-0.76715785 0.17102522 -0.89665961 16.324373
-0.85577446 0.12782735 -0.82413447 20.987366
-0.86079562 0.10319498 -0.84329772 14.512146
-0.94489223 0.041200042 -0.82637209 19.100782
-0.92530411 0.047084998 -0.92619598 11.990273
-1.0019834 0.0078575872 -0.83737576 25.491558
-1.0683705 -0.046357963 -0.88137591 20.052462
-1.1133251 -0.07544478 -0.8541016 18.411613
-1.1810924 -0.14275521 -0.88893831 19.546017
-1.2229592 -0.11587185 -0.84305757 22.994429
-1.2677155 -0.20156828 -0.85194814 15.317917
0.71259981 1.2137575 -0.60672688 24.046432
0.72921586 1.1870133 -0.71203399 15.898867
0.64093494 1.1322968 -0.64587009 14.171491
0.66668266 1.1370215 -0.72206938 18.100782
0.5960269 1.1199098 -0.67885268 19.617289
0.56496692 1.1070379 -0.64955902 17.063686
0.55058694 1.0675297 -0.74546438 21.105522
0.47361165 1.0301176 -0.69897306 14.024103
0.43406713 1.0147984 -0.64005423 14.369746
0.41510126 0.98299044 -0.72553724 20.272532
0.35868445 0.94444764 -0.68023819 8.3204622
0.30001727 0.92572755 -0.61415106 22.995699
0.32123002 0.92246252 -0.68575978 21.686071
0.26262844 0.89570063 -0.66250896 18.770905
0.17752951 0.86284184 -0.6169197 22.995602
0.22079374 0.85073894 -0.7610836 19.10215
0.18089315 0.83517587 -0.71574008 18.510435
0.127205 0.80375755 -0.65339541 18.849413
0.07119555 0.75942296 -0.66505748 16.031071
0.0044898279 0.73406297 -0.61615539 17.565346
0.011696988 0.72281516 -0.72841215 21.353617
-0.06922023 0.67995518 -0.68150014 14.365518
-0.11694236 0.66170961 -0.6186173 19.719728
-0.2092903 0.64622408 -0.56964821 22.047312
-0.11421964 0.63885403 -0.72454596 15.589282
-0.18659069 0.6129995 -0.67224646 20.829861
-0.23606469 0.59542519 -0.60166728 23.057112
-0.24978037 0.56659681 -0.70268559 20.638866
-0.30809817 0.53827745 -0.65158051 15.771322
-0.36509877 0.52650726 -0.59657061 23.553421
-0.30721217 0.5181824 -0.75482416 17.998289
-0.3738842 0.48915827 -0.70804346 20.47134
-0.41271725 0.47960246 -0.62792307 18.875937
-0.48675373 0.4163973 -0.69719648 19.332596
-0.52585918 0.39673111 -0.62697321 19.680344
-0.56698275 0.33608997 -0.74965692 15.527224
-0.57761109 0.34068966 -0.67363089 17.641024
-0.67482632 0.29501963 -0.60861093 17.062511
-0.65366209 0.29004651 -0.71914589 19.620298
-0.69022214 0.25641707 -0.66600561 18.552444
-0.75462574 0.2660816 -0.58997411 20.054447
-0.76958489 0.19095458 -0.7209298 16.465492
-0.82266992 0.18217367 -0.62137502 19.726604
-0.89483458 0.16221118 -0.61140478 20.05435
-0.80759424 0.15233912 -0.74430215 19.5783
-0.90834248 0.090644255 -0.69545871 20.68643
-0.9046489 0.069807984 -0.79774821 11.104106
-0.93842071 0.061153352 -0.75007528 19.475206
-0.98571682 0.045856278 -0.6832363 22.223606
-0.99916291 0.0014570151 -0.76210207 11.156207
-1.051844 -0.026739908 -0.71491927 21.014202
-1.1164254 -0.041881025 -0.69401437 18.067692
-1.1209013 -0.078385219 -0.79217082 18.268036
-1.1658226 -0.093659356 -0.73130429 18.025867
-1.2264175 -0.15292625 -0.75398141 16.536621
-1.2788199 -0.16919002 -0.72595185 17.632404
0.76454514 1.2367185 -0.50152636 15.249716
0.7167666 1.2341778 -0.45569181 19.556305
0.78389788 1.2263836 -0.56719828 12.991911
0.70802873 1.1994971 -0.5347544 20.326059
0.63533962 1.1642299 -0.4808901 20.31735
0.56349587 1.1744699 -0.40366372 22.047703
0.67554134 1.16719 -0.56783056 18.049854
0.60289711 1.1292199 -0.52147388 16.780081
0.52602476 1.1167852 -0.46075216 19.045847
0.53692758 1.0880982 -0.57365686 20.322189
0.49262947 1.0632014 -0.5460313 15.255475
0.43243137 1.0534588 -0.45732799 20.070992
0.43564838 1.0065939 -0.57254857 14.333632
0.37733471 0.98619014 -0.49699897 18.93561
0.37082443 0.94621193 -0.58847708 14.398403
0.30489615 0.91348004 -0.52242494 17.416319
0.25165495 0.89743191 -0.51157022 29.051613
0.25550038 0.87576234 -0.59932697 17.227352
0.19341221 0.84876215 -0.53471279 18.820713
0.127129 0.82912296 -0.47636563 20.048338
0.19006544 0.83414495 -0.61974227 26.997799
0.15454358 0.82633865 -0.57812005 21.075563
0.063414544 0.78237712 -0.54086852 18.365976
0.0213836 0.77223694 -0.49004966 17.072092
0.023463517 0.7388286 -0.56840008 18.178524
-0.044541098 0.71500331 -0.49967313 17.964384
-0.10596994 0.66341519 -0.55673766 16.946966
-0.1672169 0.64312238 -0.48903227 21.391731
-0.27895421 0.63974965 -0.39253458 14.026882
-0.16505501 0.61311835 -0.59375602 19.101955
-0.2383887 0.58392471 -0.55389667 19.528418
-0.29437092 0.57184142 -0.48685426 19.27318
-0.3039254 0.54800946 -0.56514913 20.054741
-0.36032534 0.51564723 -0.53503913 15.626605
-0.42706323 0.50117916 -0.45766142 17.670198
-0.46447271 0.44545633 -0.52685165 19.117977
-0.5131554 0.45360211 -0.4243558 15.041707
-0.60867006 0.45373979 -0.38073474 22.056402
-0.47349247 0.40480453 -0.60889584 18.041935
-0.53166837 0.37878805 -0.56927156 18.819153
-0.59476161 0.35407326 -0.50022799 12.617771
-0.6895318 0.35620296 -0.42537147 19.563881
-0.74750036 0.33905151 -0.39553496 14.026687
-0.59755367 0.3207137 -0.59634292 7.9923754
-0.64440638 0.30980173 -0.55442041 13.149839
-0.69959325 0.28385311 -0.48857155 12.022362
-0.71379966 0.24645989 -0.58117253 20.101955
-0.7865966 0.20918073 -0.54702252 18.580145
-0.83519471 0.2133708 -0.50628585 22.056208
-0.80281204 0.16706613 -0.60538661 17.280075
-0.88595796 0.1422289 -0.50607425 19.133163
-0.93558961 0.11669311 -0.47834709 14.026588
-0.85693866 0.11511165 -0.64587134 23.342913
-0.9401055 0.09932857 -0.55794948 19.302151
-1.0022516 0.071456924 -0.51998782 15.449356
-0.97914636 0.038134426 -0.62817675 15.236656
-1.0562295 0.0058146492 -0.5676496 14.740428
-1.180409 -0.016020844 -0.46156472 14.026491
-1.1596371 -0.049215861 -0.53853953 14.252535
-1.1778657 -0.11941964 -0.67112124 14.047262
-1.2362936 -0.10966159 -0.58448803 15.868947
-1.2749538 -0.13830188 -0.54263288 14.355229
-1.261813 -0.16882601 -0.65374452 16.987732
-1.345602 -0.2046677 -0.56489539 17.216539
0.72844839 1.2261336 -0.38505808 16.313774
0.67226207 1.1898173 -0.41997048 16.20067
0.61026722 1.1647447 -0.33868185 19.067564
0.51775187 1.163355 -0.29552859 23.997654
0.54639125 1.1019286 -0.41638616 15.926882
0.4777278 1.0962138 -0.3643527 13.097181
0.39097098 1.0794767 -0.2716113 18.994038
0.42945436 1.0356746 -0.37522346 20.317896
0.37931728 1.0060652 -0.32719746 13.366618
-0.53613693 1.1590831 0.2977837 19.630589
0.36625814 0.96619731 -0.44773909 20.459396
0.30404583 0.93627268 -0.36787644 13.799023
0.27187178 0.91714376 -0.32862937 15.989052
-0.60111344 1.096473 0.25751102 22.054424
-0.66583449 1.1076473 0.29926094 17.382111
-0.75170606 1.130794 0.33700854 16.180317
0.306357 0.91426444 -0.46966025 24.035875
0.26713544 0.89669651 -0.44716561 13.241013
0.18806861 0.87387651 -0.37396613 15.890904
0.14111455 0.87623686 -0.30302191 22.056892
0.055209819 0.90630519 -0.22738397 20.047899
-0.6026997 1.0080373 0.20775524 22.4261
-0.70174658 1.0266269 0.27601293 21.327995
-0.8127256 1.03985 0.30703077 17.69397
0.20700084 0.8445406 -0.45028359 21.546238
0.13839349 0.83546889 -0.41595984 9.0497189
0.063618623 0.81527251 -0.34931189 17.980913
-0.00047688995 0.78387129 -0.32899317 22.056793
-0.78112161 0.92808354 0.23703904 17.817081
-0.82463545 0.96396118 0.26831719 19.512928
0.080442071 0.77775043 -0.4358393 20.607771
0.0046569761 0.76395673 -0.40251037 14.590035
-0.057813611 0.74243307 -0.3383581 20.485252
-0.12998135 0.78935385 -0.24790181 20.0478
-0.87270385 0.86628109 0.24953169 18.050562
-0.037531044 0.7159847 -0.43118286 11.490494
-0.11271453 0.67488903 -0.39672217 13.673817
-0.17334272 0.67714548 -0.30261317 19.113098
-0.33811972 0.6921882 -0.2161096 25.544525
-0.44126701 0.67098612 -0.1521453 23.044868
-0.15500231 0.63407117 -0.42029092 18.222336
-0.22534373 0.62183404 -0.36551839 18.697884
-0.27913824 0.61952722 -0.30705798 15.973358
-0.35654941 0.62117827 -0.25707135 21.292547
-0.9328171 0.66804951 0.11660798 20.108309
-0.28157428 0.57694799 -0.410474 7.0543013
-0.35868591 0.53484845 -0.37160197 16.539003
-0.41021755 0.5541203 -0.30093345 18.878153
-0.48532403 0.56878644 -0.2454199 19.086216
-0.56237042 0.53546435 -0.20367305 20.348192
-0.42263499 0.48481494 -0.42073131 16.63422
-0.47963184 0.47529051 -0.34539336 15.094169
-0.5373916 0.46215436 -0.27570388 14.026866
-0.62552035 0.49122474 -0.23270063 23.552052
-0.71481818 0.45158076 -0.18265824 18.069599
-0.51857144 0.42228439 -0.3910411 10.66639
-0.59710556 0.4057304 -0.32243901 12.044407
-0.66833401 0.39984757 -0.26547283 15.851161
-0.72644436 0.44298419 -0.19844002 20.977224
-0.82412028 0.41344333 -0.14939876 18.069502
-0.57817549 0.36888558 -0.43324438 10.695764
-0.64927751 0.35451785 -0.40104219 16.060215
-0.72214127 0.32765257 -0.31751591 16.83761
-0.77603877 0.30085355 -0.27065024 16.760862
-1.0874341 0.36970669 -0.075184256 6.0359726
-0.71871316 0.27269712 -0.44240338 12.028365
-0.7680552 0.26520556 -0.37925959 14.64879
-0.82512718 0.26853862 -0.29400095 13.321017
-0.90383148 0.22778101 -0.26079658 22.030987
-0.76683271 0.21690218 -0.46262988 14.518818
-0.82462871 0.20512117 -0.3986553 12.822309
-0.873501 0.18817802 -0.34566444 15.772035
-0.93490905 0.15742756 -0.31228185 0.05816225
-1.0348407 0.17730266 -0.28541139 20.976931
-0.87965375 0.14234725 -0.45052746 12.044868
-0.93006814 0.14005925 -0.38628274 15.80295
-0.99052656 0.12244868 -0.32214588 16.037275
-1.0615779 0.088131323 -0.29210064 19.998436
-0.97813058 0.084905036 -0.44647983 14.048451
-1.0635417 0.049466595 -0.38434845 17.496027
-1.1446606 0.028010275 -0.3204509 14.31293
-1.1970099 0.089375414 -0.28411993 24.067547
-1.0336504 0.01383971 -0.46315411 20.039198
-1.1075883 -0.011639811 -0.45083734 10.756769
-1.1717923 -0.020154685 -0.38196906 18.457596
-1.2613101 -0.047784612 -0.31860203 13.6642
-1.2306387 -0.070109531 -0.42040747 17.249481
-1.3152831 -0.090635709 -0.36048099 16.235136
-1.2980771 -0.13839477 -0.44969076 16.547052
-1.3309067 -0.21340115 -0.52659893 20.039101
0.54191399 1.1529655 -0.23130494 11.299719
0.47779542 1.1271551 -0.19242182 12.534609
0.40170005 1.1301452 -0.12987295 15.523412
0.31826279 1.1310591 -0.040456321 14.815798
0.4137944 1.0805821 -0.21462797 11.991865
0.35800487 1.0634784 -0.16232201 13.282026
0.25982082 1.0444529 -0.096584022 16.377291
0.20390117 1.0851758 -0.045009583 23.032404
0.098855101 1.064196 0.024960971 21.0686
0.062932216 1.1083089 0.075515039 14.155722
-0.051970672 1.1211363 0.12033595 17.611172
0.35334736 1.0041808 -0.26148063 8.6945915
0.30513519 0.98738617 -0.21445179 10.671393
0.21575205 0.97418869 -0.13059579 11.813752
0.14843681 0.98043448 -0.074215584 15.024211
0.05611407 1.0016729 0.0017288183 14.866519
-0.00010543321 1.0385034 0.053441986 19.599195
-0.090871505 1.0444977 0.095068626 20.048328
-0.15876493 1.0426679 0.12882437 15.393003
-0.27689731 1.0574396 0.19028214 19.11179
-0.35156372 1.0989319 0.2238203 19.661551
-0.44422027 1.1223568 0.26378918 16.986301
-0.52175623 1.1179475 0.27703857 15.512848
0.30445063 0.95444876 -0.2972945 -0.010850421
0.23910214 0.92316651 -0.25030023 12.188107
0.17568751 0.9140051 -0.18141358 12.363577
0.098161638 0.90177494 -0.11797188 15.820609
0.040534228 0.94089955 -0.050553244 16.31068
-0.047733773 0.93323386 -0.00017807126 15.940733
-0.13909417 0.96963334 0.071136817 17.095718
-0.20787983 0.98519677 0.12116152 16.318567
-0.29842386 0.97296995 0.14635108 15.233389
-0.38209438 1.0037208 0.19531687 22.224012
-0.48983741 1.0519469 0.23666263 17.201931
-0.56822097 1.0634177 0.2647666 23.057543
0.13197991 0.86778969 -0.2497014 12.051662
0.062990747 0.85088849 -0.19211952 20.162302
-0.043245323 0.85092956 -0.10871088 17.344103
-0.079994537 0.86680669 -0.042181753 11.604924
-0.17668642 0.85920143 0.0082575222 13.239508
-0.26080707 0.89048672 0.06894692 19.892675
-0.33917129 0.90134841 0.11143912 15.958978
-0.42147163 0.92424935 0.15257671 18.2778
-0.51490653 0.95508736 0.20878375 18.485518
-0.61207074 0.96552342 0.22033827 19.35607
0.09634535 0.81818181 -0.30305889 18.99394
0.010452493 0.79244775 -0.24728857 17.332561
-0.068883091 0.78228348 -0.17499442 14.056976
-0.12768124 0.79199481 -0.091968603 13.075651
-0.20882455 0.79625213 -0.035330925 19.155596
-0.31527582 0.80358785 0.022369817 16.457285
-0.38720778 0.80343717 0.069904923 10.815989
-0.46544671 0.83594304 0.11892923 20.038771
-0.56508362 0.86414343 0.15455933 21.542301
-0.64103317 0.89727873 0.194414 22.640682
-0.72625864 0.89572841 0.22057156 16.834354
-0.070220888 0.71926355 -0.27962565 21.019234
-0.12098126 0.71345359 -0.23066013 13.663754
-0.18572308 0.71303684 -0.16774768 10.614052
-0.28524375 0.71943808 -0.094564095 11.518106
-0.33816382 0.73563731 -0.033748243 11.838278
-0.43881735 0.73640227 0.042599227 19.213781
-0.49766561 0.74184811 0.073585279 18.747921
-0.58460706 0.79205108 0.10888898 16.392529
-0.68193847 0.7977491 0.15834533 19.829035
-0.76078421 0.81552029 0.19994248 14.01518
-0.86202198 0.84151608 0.2449411 20.057262
-0.1388894 0.6894666 -0.27545932 11.051907
-0.25025657 0.67584598 -0.17864029 15.292786
-0.32387671 0.66671658 -0.14413948 14.771676
-0.39745492 0.64646083 -0.071174242 14.249714
-0.46367192 0.653153 -0.010795005 14.038531
-0.56871951 0.706981 0.046654519 20.824488
-0.63167793 0.68580985 0.083660223 22.066006
-0.71091211 0.74195653 0.14075527 14.476364
-0.80327111 0.73839462 0.1789723 16.981745
-0.88867593 0.75959289 0.21807565 19.150673
-0.29196468 0.6223647 -0.25002679 15.049756
-0.39773059 0.58971643 -0.19852489 12.101323
-0.42706513 0.59835762 -0.12059 13.593127
-0.50042444 0.59908444 -0.076020159 12.583654
-0.57856023 0.59836721 0.0006601527 13.253352
-0.67448086 0.60102117 0.046298198 11.253186
-0.75345099 0.63941693 0.1001308 18.863146
-0.85491347 0.66027772 0.14057766 18.79763
-0.94773364 0.68294191 0.19250946 18.453478
-0.43655357 0.53213894 -0.25293645 17.100586
-0.47315958 0.54382998 -0.18317986 15.429196
-0.56014246 0.52846175 -0.13012013 19.349955
-0.64154637 0.52003592 -0.063407235 15.643464
-0.72043926 0.54153031 0.0011878876 19.04565
-0.81779736 0.56042945 0.044778109 18.692301
-0.89235967 0.5748623 0.10309113 18.034946
-0.97563666 0.59660476 0.15432517 17.227654
-0.52937526 0.48535153 -0.23169863 17.547997
-0.61352378 0.46062338 -0.16821735 12.209496
-0.71753925 0.43684906 -0.12832649 17.248692
-0.73668879 0.48591706 -0.041676313 22.730141
-0.84958279 0.48096299 -0.0031676267 14.883604
-0.93412799 0.483448 0.050722815 15.774097
-0.65242827 0.40611976 -0.23481913 10.022687
-0.73617476 0.38272297 -0.18228659 14.006317
-0.80189842 0.39652011 -0.10874923 15.282695
-0.87352014 0.38325748 -0.063104168 15.795358
-0.96399087 0.41389096 0.0074039269 18.246668
-0.71592385 0.35486615 -0.24330989 28.998045
-0.78290015 0.31109545 -0.22957171 14.868641
-0.84613818 0.30490926 -0.14849603 14.198406
-0.91753894 0.32204813 -0.089431822 11.711646
-1.0080324 0.34874004 -0.022349475 17.036793
-0.8489756 0.23358771 -0.2701216 20.490688
-0.88544393 0.23792872 -0.20412371 9.855093
-0.97517323 0.24623172 -0.13392758 14.295119
-1.0356773 0.25517458 -0.084057227 17.643589
-0.8892287 0.19922473 -0.28531238 0.057673495
-0.94842374 0.16659354 -0.27061146 9.2183571
-1.0094465 0.17002571 -0.20364527 14.273693
-1.1029943 0.17012103 -0.12886401 13.215343
-1.072371 0.10474948 -0.23823109 14.619943
-1.1451186 0.082175359 -0.19609791 9.4052687
-1.1192374 0.047273658 -0.26156062 22.022629
-1.1944122 0.033316813 -0.22174515 16.431114
-1.2451856 -0.019112306 -0.25786066 11.993647
0.29205945 1.104003 -0.026914906 19.025221
0.31274718 1.0774597 -0.047268767 23.996775
0.14568044 1.0594422 0.0075753615 19.025415
-0.012738797 1.0670559 0.10001487 19.025661
0.20962641 0.91641206 -0.033724725 22.112707
0.079184882 1.0162152 0.013545823 16.576736
-0.05490189 1.0193222 0.091589883 14.117498
0.019705491 0.92752373 -0.03383508 25.115641
-0.14334771 0.98004484 0.096615009 8.9946241
-0.2658633 0.97346145 0.18859811 21.101858
-0.076588377 0.85851771 -0.038378991 21.030499
-0.28264368 0.87564433 0.206147 22.120918
-0.20380148 0.81609452 0.0029718201 17.103861
-0.33664772 0.77746284 0.033315714 21.103031
-0.26827481 0.6694786 -0.0066184183 19.120821
-0.5252037 0.64630342 0.027247673 16.026882
-0.49040216 0.60477936 -0.017589722 13.986119
